ply
format ascii 1.0
comment Tango Point Cloud
element vertex 1353
property float x
property float y
property float z
property uchar red
property uchar green
property uchar blue
end_header
-4.26952 -0.675 5.474999 151 155 151
-4.25834 -0.675 5.425 152 154 149
-4.246386 -0.675 5.375 154 156 149
-4.238811 -0.675 5.325 160 163 156
-4.228816 -0.675 5.275 157 157 150
-4.225 -0.675 5.254213 157 157 150
-4.21859 -0.675 5.224999 157 158 150
-4.204166 -0.675 5.175 159 159 152
-4.191727 -0.675 5.125 164 166 159
-4.177841 -0.675 5.075 174 177 169
-4.175 -0.675 5.061551 174 177 169
-4.167404 -0.675 5.025 175 177 168
-4.154308 -0.675 4.974999 176 177 168
-4.147005 -0.675 4.925 173 176 170
-4.151924 -0.675 4.875 163 164 155
-4.204348 -0.675 4.825 147 149 143
-4.175 -0.675 4.845319 156 157 147
-4.397637 -0.675 4.775 137 139 133
-4.375 -0.675 4.788788 137 139 133
-4.325 -0.675 4.800311 147 148 140
-4.275 -0.675 4.808982 147 149 143
-4.225 -0.675 4.817788 147 149 143
-4.275616 -0.625 5.525 150 156 155
-4.275 -0.625 5.532723 150 156 155
-4.275 -0.6468447 5.525 150 156 155
-4.271797 -0.625 5.575 146 155 155
-4.275 -0.625 5.521922 150 156 155
-4.265416 -0.625 5.474999 157 162 159
-4.257924 -0.625 5.425 154 155 150
-4.24663 -0.625 5.375 158 162 157
-4.234885 -0.625 5.325 155 156 149
-4.229531 -0.625 5.275 167 168 160
-4.225 -0.625 5.253498 167 168 160
-4.21711 -0.625 5.224999 158 158 150
-4.203912 -0.625 5.175 160 160 152
-4.190289 -0.625 5.125 159 160 153
-4.176867 -0.625 5.075 172 174 167
-4.175 -0.625 5.065448 172 174 167
-4.167316 -0.625 5.025 176 177 169
-4.155667 -0.625 4.974999 178 179 170
-4.147496 -0.625 4.925 175 177 171
-4.151943 -0.625 4.875 164 164 155
-4.218871 -0.625 4.825 143 145 139
-4.175 -0.625 4.847497 156 157 147
-4.381782 -0.625 4.775 135 137 130
-4.375 -0.625 4.7785 135 137 130
-4.325 -0.625 4.80643 147 146 139
-4.275 -0.625 4.814137 141 143 137
-4.225 -0.625 4.823053 143 145 139
-4.275 -0.6142687 5.525 150 156 155
-4.272677 -0.575 5.525 152 162 161
-4.269577 -0.575 5.575 132 148 150
-4.264549 -0.575 5.474999 152 155 152
-4.255517 -0.575 5.425 161 162 157
-4.243242 -0.575 5.375 159 162 157
-4.234175 -0.575 5.325 161 162 155
-4.226328 -0.575 5.275 167 169 160
-4.225 -0.575 5.268472 167 169 160
-4.21452 -0.575 5.224999 165 166 158
-4.201612 -0.575 5.175 160 161 153
-4.190868 -0.575 5.125 160 161 153
-4.175 -0.5978188 5.075 176 179 172
-4.175 -0.575 5.079413 176 179 172
-4.173522 -0.575 5.075 176 179 172
-4.16708 -0.575 5.025 177 177 170
-4.154614 -0.575 4.974999 173 174 165
-4.14731 -0.575 4.925 179 181 174
-4.149803 -0.575 4.875 180 181 173
-4.212533 -0.575 4.825 143 145 138
-4.175 -0.575 4.84394 155 156 147
-4.425 0.02499996 4.777662 141 141 133
-4.434402 0.02499996 4.775 141 141 133
-4.175 0.02499996 4.849613 175 174 164
-4.225 0.02499996 4.832663 169 168 158
-4.253588 0.02499996 4.825 166 167 157
-4.144447 0.02499996 4.875 202 203 194
-4.408067 -0.575 4.775 135 137 130
-4.375 -0.575 4.790907 135 136 129
-4.325 -0.575 4.805325 148 149 140
-4.275 -0.575 4.810922 143 145 138
-4.225 -0.575 4.82148 143 145 138
-4.270811 -0.525 5.575 147 156 156
-4.273113 -0.525 5.525 156 164 163
-4.263862 -0.525 5.474999 159 163 160
-4.254656 -0.525 5.425 161 162 157
-4.242914 -0.525 5.375 159 163 158
-4.232181 -0.525 5.325 163 165 158
-4.227994 -0.525 5.275 164 165 157
-4.225 -0.525 5.262022 164 165 157
-4.214833 -0.525 5.224999 160 160 151
-4.200608 -0.525 5.175 160 161 152
-4.189898 -0.525 5.125 169 171 163
-4.175 -0.5375551 5.075 174 176 168
-4.175539 -0.525 5.075 174 176 168
-4.175 -0.525 5.072145 174 176 168
-4.166368 -0.525 5.025 177 177 169
-4.15548 -0.525 4.974999 178 178 169
-4.147279 -0.525 4.925 179 182 174
-4.150666 -0.525 4.875 166 166 156
-4.213893 -0.525 4.825 147 148 140
-4.175 -0.525 4.846879 157 157 148
-4.135429 0.02499996 4.925 197 200 192
-4.137481 0.02499996 4.974999 186 195 193
-4.390509 -0.525 4.775 136 138 132
-4.375 -0.525 4.781746 136 138 132
-4.325 -0.525 4.798478 139 140 134
-4.275 -0.525 4.808461 145 147 140
-4.225 -0.525 4.821407 147 148 140
-4.271658 -0.475 5.575 148 157 158
-4.270749 -0.475 5.525 155 163 164
-4.264549 -0.475 5.474999 154 157 153
-4.25404 -0.475 5.425 156 157 151
-4.241014 -0.475 5.375 156 157 151
-4.231711 -0.475 5.325 163 165 159
-4.226512 -0.475 5.275 165 166 158
-4.225 -0.475 5.267951 165 166 158
-4.21356 -0.475 5.224999 161 161 153
-4.199013 -0.475 5.175 160 161 153
-4.187263 -0.475 5.125 167 168 160
-4.175 -0.5131003 5.075 174 176 168
-4.175 -0.475 5.081248 173 175 168
-4.173436 -0.475 5.075 173 175 168
-4.164447 -0.475 5.025 178 179 171
-4.153514 -0.475 4.974999 178 178 169
-4.147855 -0.475 4.925 178 180 172
-4.148212 -0.475 4.875 181 182 174
-4.209675 -0.475 4.825 146 148 141
-4.175 -0.475 4.845867 158 158 148
-4.395761 -0.475 4.775 135 137 129
-4.375 -0.475 4.783015 135 137 129
-4.325 -0.475 4.800031 160 160 149
-4.275 -0.475 4.812586 147 148 142
-4.225 -0.475 4.819458 146 148 141
-4.272725 -0.425 5.575 130 146 149
-4.270172 -0.425 5.525 157 166 165
-4.264258 -0.425 5.474999 161 165 162
-4.250522 -0.425 5.425 157 159 152
-4.238633 -0.425 5.375 159 159 153
-4.227143 -0.425 5.325 160 160 152
-4.225223 -0.425 5.275 160 160 151
-4.225 -0.425 5.273961 160 160 151
-4.211836 -0.425 5.224999 162 162 154
-4.196514 -0.425 5.175 161 162 153
-4.183434 -0.425 5.125 162 163 154
-4.175 -0.425 5.094685 176 177 170
-4.17022 -0.425 5.075 176 177 170
-4.161159 -0.425 5.025 179 179 172
-4.153483 -0.425 4.974999 180 180 171
-4.145678 -0.425 4.925 178 181 173
-4.147723 -0.425 4.875 183 183 176
-4.213407 -0.425 4.825 155 155 147
-4.175 -0.425 4.845361 158 158 149
-4.148056 0.02499996 5.025 179 180 173
-4.154948 0.02499996 5.075 195 197 191
-4.170119 0.02499996 5.125 177 176 169
-4.175 0.02499996 5.146878 177 176 169
-4.379951 -0.425 4.775 135 138 130
-4.375 -0.425 4.777066 135 138 130
-4.325 -0.425 4.797275 147 147 139
-4.275 -0.425 4.809689 155 155 146
-4.225 -0.425 4.821132 155 155 147
-4.268695 -0.375 5.575 152 161 161
-4.269066 -0.375 5.525 157 166 166
-4.259982 -0.375 5.474999 162 167 163
-4.24847 -0.375 5.425 159 161 156
-4.238249 -0.375 5.375 160 161 154
-4.228621 -0.375 5.325 162 163 154
-4.225 -0.4169255 5.275 160 160 151
-4.225 -0.375 5.28865 162 163 153
-4.223595 -0.375 5.275 162 163 153
-4.209935 -0.375 5.224999 162 163 154
-4.196014 -0.375 5.175 164 164 156
-4.179325 -0.375 5.125 173 173 165
-4.175 -0.375 5.107125 173 173 165
-4.169003 -0.375 5.075 178 179 171
-4.161117 -0.375 5.025 185 186 178
-4.149197 -0.375 4.974999 176 178 171
-4.144957 -0.375 4.925 180 183 174
-4.146884 -0.375 4.875 184 185 176
-4.223172 -0.375 4.825 157 158 149
-4.175 -0.375 4.847417 162 161 151
-4.184949 0.02499996 5.175 175 176 168
-4.381183 -0.375 4.775 140 142 135
-4.375 -0.375 4.776699 140 142 135
-4.325 -0.375 4.799407 148 149 140
-4.275 -0.375 4.811023 156 156 148
-4.225 -0.375 4.824407 157 158 149
-4.26854 -0.325 5.575 153 163 164
-4.265428 -0.325 5.525 156 164 163
-4.258397 -0.325 5.474999 158 162 158
-4.246446 -0.325 5.425 159 161 156
-4.235435 -0.325 5.375 161 162 156
-4.225 -0.3481516 5.325 164 165 156
-4.225 -0.325 5.337302 164 165 156
-4.222237 -0.325 5.325 164 165 156
-4.22114 -0.325 5.275 164 164 155
-4.207951 -0.325 5.224999 165 165 157
-4.193279 -0.325 5.175 169 170 163
-4.179035 -0.325 5.125 172 172 164
-4.175 -0.325 5.109814 172 172 164
-4.1675 -0.325 5.075 176 176 169
-4.159529 -0.325 5.025 187 187 179
-4.148516 -0.325 4.974999 174 175 168
-4.14261 -0.325 4.925 184 186 178
-4.144966 -0.325 4.875 188 188 180
-4.219049 -0.325 4.825 158 158 150
-4.175 -0.325 4.846748 163 163 153
-4.401857 -0.325 4.775 140 141 134
-4.375 -0.325 4.782278 140 141 134
-4.325 -0.325 4.801091 161 161 152
-4.275 -0.325 4.812285 156 157 148
-4.225 -0.325 4.822925 158 158 150
-4.266635 -0.275 5.575 157 167 168
-4.269768 -0.275 5.525 161 170 171
-4.261215 -0.275 5.474999 168 174 171
-4.248412 -0.275 5.425 161 163 157
-4.23364 -0.275 5.375 162 164 156
-4.225 -0.275 5.345325 169 171 164
-4.220655 -0.275 5.325 169 171 164
-4.221481 -0.275 5.275 166 166 157
-4.208163 -0.275 5.224999 168 168 160
-4.191463 -0.275 5.175 168 168 160
-4.176458 -0.275 5.125 174 174 166
-4.175 -0.275 5.120432 174 174 166
-4.164247 -0.275 5.075 185 186 179
-4.158192 -0.275 5.025 189 190 181
-4.14562 -0.275 4.974999 177 178 171
-4.141179 -0.275 4.925 187 188 180
-4.145244 -0.275 4.875 192 191 182
-4.217993 -0.275 4.825 159 159 151
-4.175 -0.275 4.845474 165 165 153
-4.396922 -0.275 4.775 142 144 136
-4.375 -0.275 4.783247 142 144 136
-4.325 -0.275 4.799246 150 150 142
-4.275 -0.275 4.811787 159 158 151
-4.225 -0.275 4.82283 159 159 151
-4.269494 -0.225 5.575 157 167 169
-4.269741 -0.225 5.525 163 173 173
-4.258103 -0.225 5.474999 167 172 169
-4.247268 -0.225 5.425 162 164 159
-4.231909 -0.225 5.375 163 164 157
-4.225 -0.225 5.344777 169 172 166
-4.221594 -0.225 5.325 169 172 166
-4.217247 -0.225 5.275 166 167 158
-4.209083 -0.225 5.224999 168 169 160
-4.191607 -0.225 5.175 169 169 161
-4.175472 -0.225 5.125 175 176 169
-4.175 -0.225 5.123771 175 176 169
-4.161937 -0.225 5.075 187 189 180
-4.156574 -0.225 5.025 190 191 182
-4.145809 -0.225 4.974999 180 181 174
-4.142204 -0.225 4.925 189 190 182
-4.146599 -0.225 4.875 193 193 185
-4.222239 -0.225 4.825 160 160 152
-4.175 -0.225 4.846025 166 166 155
-4.412542 -0.225 4.775 141 142 135
-4.375 -0.225 4.786729 140 141 134
-4.325 -0.225 4.795517 151 151 143
-4.275 -0.225 4.808552 159 159 151
-4.225 -0.225 4.824187 160 160 152
-4.267639 -0.175 5.575 151 167 172
-4.266845 -0.175 5.525 162 171 172
-4.258167 -0.175 5.474999 169 176 174
-4.24479 -0.175 5.425 161 164 159
-4.230941 -0.175 5.375 166 171 167
-4.225 -0.175 5.347421 169 172 167
-4.220624 -0.175 5.325 169 172 167
-4.215522 -0.175 5.275 166 166 158
-4.202302 -0.175 5.224999 167 168 159
-4.185354 -0.175 5.175 170 170 162
-4.175 -0.2113192 5.125 175 176 169
-4.175 -0.175 5.130709 170 171 163
-4.173979 -0.175 5.125 170 171 163
-4.157688 -0.175 5.075 188 190 182
-4.153098 -0.175 5.025 193 194 184
-4.143914 -0.175 4.974999 182 184 179
-4.140852 -0.175 4.925 190 191 183
-4.143472 -0.175 4.875 194 195 186
-4.213623 -0.175 4.825 160 160 152
-4.175 -0.175 4.845598 166 166 155
-4.416861 -0.175 4.775 141 142 134
-4.375 -0.175 4.790048 151 151 143
-4.325 -0.175 4.801363 161 161 152
-4.275 -0.175 4.809122 159 159 151
-4.225 -0.175 4.820956 160 160 152
-4.267479 -0.125 5.575 138 157 162
-4.267746 -0.125 5.525 161 173 173
-4.25705 -0.125 5.474999 170 178 176
-4.24487 -0.125 5.425 162 164 160
-4.226569 -0.125 5.375 164 164 158
-4.225 -0.125 5.365526 164 164 158
-4.219597 -0.125 5.325 171 174 168
-4.214927 -0.125 5.275 175 175 168
-4.201664 -0.125 5.224999 170 171 161
-4.182997 -0.125 5.175 171 171 163
-4.175 -0.125 5.147461 172 172 164
-4.17027 -0.125 5.125 172 172 164
-4.155706 -0.125 5.075 190 192 185
-4.151824 -0.125 5.025 193 194 186
-4.144118 -0.125 4.974999 183 184 180
-4.139844 -0.125 4.925 191 193 185
-4.145571 -0.125 4.875 197 198 189
-4.216688 -0.125 4.825 161 162 152
-4.175 -0.125 4.841491 167 167 157
-4.409472 -0.125 4.775 142 142 135
-4.375 -0.125 4.784412 141 141 134
-4.325 -0.125 4.802852 165 165 156
-4.275 -0.125 4.809571 164 163 155
-4.225 -0.125 4.823164 161 162 152
-4.269395 -0.075 5.575 150 168 172
-4.267705 -0.075 5.525 165 176 178
-4.25728 -0.075 5.474999 168 174 171
-4.244669 -0.075 5.425 165 166 162
-4.22984 -0.075 5.375 168 174 171
-4.225 -0.075 5.361783 168 174 171
-4.215804 -0.075 5.325 167 168 160
-4.212601 -0.075 5.275 170 170 162
-4.202804 -0.075 5.224999 171 171 162
-4.182798 -0.075 5.175 172 172 164
-4.175 -0.075 5.15631 172 172 164
-4.166899 -0.075 5.125 183 189 184
-4.155792 -0.075 5.075 191 193 186
-4.149793 -0.075 5.025 175 176 168
-4.140495 -0.075 4.974999 188 192 186
-4.137249 -0.075 4.925 193 195 188
-4.146548 -0.075 4.875 197 198 189
-4.228868 -0.075 4.825 165 165 156
-4.225 -0.075 4.825947 165 165 156
-4.225 -0.09085511 4.825 165 165 156
-4.175 -0.075 4.84708 170 171 160
-4.433179 -0.075 4.775 141 142 134
-4.425 -0.075 4.777106 141 142 134
-4.425 -0.09537037 4.775 141 142 134
-4.375 -0.075 4.794959 141 143 134
-4.325 -0.075 4.808734 165 165 155
-4.275 -0.075 4.814836 164 165 155
-4.267558 -0.02500005 5.575 145 163 167
-4.263984 -0.02500005 5.525 161 172 174
-4.257852 -0.02500005 5.474999 164 168 164
-4.244511 -0.02500005 5.425 165 167 162
-4.225539 -0.02500005 5.375 166 167 161
-4.225 -0.02500005 5.373285 166 167 161
-4.214991 -0.02500005 5.325 168 169 162
-4.216254 -0.02500005 5.275 170 171 164
-4.199731 -0.02500005 5.224999 170 171 163
-4.183923 -0.02500005 5.175 173 173 165
-4.175 -0.02500005 5.155208 173 173 165
-4.16625 -0.02500005 5.125 178 182 176
-4.156823 -0.02500005 5.075 192 195 187
-4.150883 -0.02500005 5.025 200 201 193
-4.141521 -0.02500005 4.974999 189 194 188
-4.135959 -0.02500005 4.925 195 197 190
-4.147402 -0.02500005 4.875 202 202 193
-4.225014 -0.02500005 4.825004 166 166 156
-4.175 -0.02500005 4.848841 172 170 160
-4.425 -0.04339085 4.775 140 141 133
-4.421883 -0.02500005 4.775 140 141 133
-4.375 -0.02500005 4.793406 140 141 133
-4.325 -0.02500005 4.804314 163 164 154
-4.275 -0.02500005 4.814128 163 164 155
-4.265557 0.02499996 5.575 166 177 178
-4.260428 0.02499996 5.525 170 181 181
-4.258774 0.02499996 5.474999 172 176 171
-4.244496 0.02499996 5.425 172 175 169
-4.2277 0.02499996 5.375 170 171 164
-4.225 0.02499996 5.364273 170 171 164
-4.218009 0.02499996 5.325 176 179 173
-4.213322 0.02499996 5.275 174 174 167
-4.201379 0.02499996 5.224999 174 175 167
-4.212852 0.02499996 5.275 174 174 167
-4.200539 0.02499996 5.224999 175 176 168
-4.325 -0.02500005 4.805691 156 156 149
-4.275 -0.02500005 4.817869 164 164 156
-4.475 -0.02500005 4.775071 131 133 127
-4.475 -0.02979803 4.775 131 133 127
-4.425 -0.02500005 4.780706 132 134 129
-4.375 -0.02500005 4.795756 133 135 130
-4.162653 -0.02500005 5.125 169 171 162
-4.155861 -0.02500005 5.075 170 171 163
-4.206589 -0.02500005 5.325 165 167 162
-4.207254 -0.02500005 5.275 158 162 157
-4.189685 -0.02500005 5.224999 158 162 156
-4.175 -0.02500005 5.181407 161 164 159
-4.172761 -0.02500005 5.175 161 164 159
-4.161324 -0.02500005 5.125 163 166 160
-4.154733 -0.02500005 5.075 164 167 161
-4.147838 -0.02500005 5.025 164 166 161
-4.13517 -0.02500005 4.974999 166 169 164
-4.127982 -0.02500005 4.925 166 169 165
-4.138363 -0.02500005 4.875 166 169 164
-4.275 -0.07237684 4.825 136 141 139
-4.263032 -0.02500005 4.825 137 142 140
-4.225 -0.02500005 4.830466 144 149 148
-4.175 -0.02500005 4.84756 163 166 161
-4.487743 -0.02500005 4.775 116 121 118
-4.475 -0.02500005 4.778125 116 121 118
-4.425 -0.02500005 4.782957 117 122 121
-4.375 -0.02500005 4.797552 118 123 122
-4.325 -0.02500005 4.810341 126 131 128
-4.275 -0.02500005 4.822604 137 142 140
-4.258924 0.02499996 5.575 154 171 174
-4.252002 0.02499996 5.525 158 172 173
-4.249781 0.02499996 5.474999 161 173 172
-4.234791 0.02499996 5.425 163 170 168
-4.225 0.02499996 5.396933 165 170 163
-4.218184 0.02499996 5.375 165 170 163
-4.208315 0.02499996 5.325 166 169 161
-4.205586 0.02499996 5.275 159 162 158
-4.192296 0.02499996 5.224999 160 163 158
-4.175 0.02499996 5.180081 162 165 160
-4.172963 0.02499996 5.175 162 165 160
-4.162902 0.02499996 5.125 164 167 161
-4.154672 0.02499996 5.075 164 167 162
-4.145357 0.02499996 5.025 165 169 163
-4.133612 0.02499996 4.974999 167 170 165
-4.129866 0.02499996 4.925 167 170 165
-4.136016 0.02499996 4.875 167 170 165
-4.276568 0.02499996 4.825 136 142 139
-4.275 0.02499996 4.825333 136 142 139
-4.153418 0.02499996 5.075 154 159 158
-4.144184 0.02499996 5.025 154 160 158
-4.132604 0.02499996 4.974999 156 161 160
-4.128629 0.02499996 4.925 156 162 161
-4.135212 0.02499996 4.875 156 161 160
-4.278698 0.02499996 4.825 136 142 139
-4.275 0.02499996 4.825763 136 142 139
-4.275 0.02499996 4.825763 136 142 139
-4.153418 0.02499996 5.075 154 159 158
-4.144184 0.02499996 5.025 154 160 158
-4.132604 0.02499996 4.974999 156 161 160
-4.128629 0.02499996 4.925 156 162 161
-4.135212 0.02499996 4.875 156 161 160
-4.278698 0.02499996 4.825 136 142 139
-4.275 0.02499996 4.825763 136 142 139
-4.225 0.02499996 4.835358 146 150 149
-4.175 0.02499996 4.8468 153 158 157
-4.491333 0.02499996 4.775 118 123 120
-4.475 0.02499996 4.777339 118 123 120
-4.425 0.02499996 4.786196 117 122 120
-4.375 0.02499996 4.796504 119 124 122
-4.325 0.02499996 4.811234 126 132 129
-4.134106 0.02499996 4.875 155 161 161
-4.291964 0.02499996 4.825 120 126 124
-4.275 0.02499996 4.828331 120 126 124
-4.225 0.02499996 4.837217 135 140 139
-4.175 0.02499996 4.847738 148 154 152
-4.523109 0.02499996 4.775 113 118 117
-4.475 0.02499996 4.781388 114 120 119
-4.425 0.02499996 4.789447 115 121 119
-4.375 0.02499996 4.800189 120 126 123
-4.325 0.02499996 4.815324 120 126 124
-4.325 0.02499996 4.818612 120 126 125
-4.1236 0.02499996 4.974999 159 165 163
-4.120803 0.02499996 4.925 158 164 163
-4.130978 0.02499996 4.875 158 163 163
-4.125 0.02499996 4.901351 158 164 163
-4.313689 0.02499996 4.825 121 127 125
-4.275 0.02499996 4.832263 123 128 127
-4.225 0.02499996 4.840312 124 129 129
-4.175 0.02499996 4.849466 130 136 135
-4.581955 0.02499996 4.775 115 119 118
-4.575 0.02499996 4.775556 115 119 118
-4.525 0.02499996 4.781271 114 119 119
-4.475 0.02499996 4.787865 116 121 120
-4.425 0.02499996 4.795184 117 122 121
-4.375 0.02499996 4.806468 121 126 125
-4.325 0.02499996 4.821751 121 127 125
-4.475 0.02499996 4.789085 117 122 120
-4.425 0.02499996 4.796375 119 123 122
-4.375 0.02499996 4.807672 122 126 125
-4.325 0.02499996 4.822904 123 128 126
-4.175 0.02499996 4.85005 147 151 149
-4.625 0.01559497 4.775 116 121 119
-4.621058 0.02499996 4.775 116 121 119
-4.575 0.02499996 4.778067 118 122 120
-4.525 0.02499996 4.783956 117 122 120
-4.475 0.02499996 4.790082 120 124 121
-4.425 0.02499996 4.79707 121 125 123
-4.375 0.02499996 4.808787 123 127 125
-4.325 0.02499996 4.823819 124 129 127
-4.575 0.02499996 4.779249 120 125 122
-4.525 0.02499996 4.785032 120 125 123
-4.475 0.02499996 4.791153 122 126 123
-4.425 0.02499996 4.797702 124 127 124
-4.375 0.02499996 4.809718 125 129 126
-4.325 0.02499996 4.824928 126 130 128
-4.575 0.02499996 4.780951 128 132 128
-4.525 0.02499996 4.786832 129 132 130
-4.475 0.02499996 4.792938 130 133 129
-4.425 0.02499996 4.799226 131 133 129
-4.375 0.02499996 4.811133 131 134 131
-4.375 0.02499996 4.811954 134 137 134
-4.375 0.02499996 4.812815 137 140 136
-4.375 0.02499996 4.814073 144 146 141
-4.375 0.02499996 4.817604 160 159 150
-2.475 -0.6024743 2.375 245 241 227
-2.525 -0.6201533 2.375 242 237 222
-2.475 -0.6062639 2.425 239 236 220
-2.525 -0.6172975 2.425 236 231 216
-2.525 -0.6158528 2.475 234 228 214
-2.554096 -0.725 3.125 172 170 159
-2.525 -0.7009596 3.125 97 99 93
-2.525 -0.7066658 3.175 62 63 60
-2.543045 -0.725 3.175 62 63 60
-2.475 -0.7020262 3.125 33 36 31
-2.475 -0.7094073 3.175 75 76 70
-2.425 -0.7231905 3.125 99 99 92
-2.425 -0.725 3.14411 99 99 92
-2.430233 -0.725 3.175 73 74 68
-2.422857 -0.725 3.125 99 99 92
-2.565433 -0.725 3.075 150 148 140
-2.525 -0.6949866 3.075 183 179 168
-2.475 -0.7027366 3.075 64 64 55
-2.430852 -0.725 3.075 100 100 93
-2.425 -0.725 3.1113 99 99 92
-2.525 -0.725 3.029263 143 141 132
-2.514359 -0.725 3.025 143 141 132
-2.475 -0.7105866 3.025 94 94 86
-2.443401 -0.725 3.025 119 119 110
-2.475 -0.725 3.009378 94 94 86
-2.487472 -0.725 2.875 101 101 94
-2.475 -0.7063293 2.875 101 101 94
-2.475 -0.725 2.891097 101 101 94
-2.425 -0.7118392 2.875 119 119 112
-2.425 -0.725 2.8893 119 119 112
-2.375 -0.7228456 2.875 110 110 102
-2.375 -0.725 2.877773 110 110 102
-2.496397 -0.725 2.825 79 78 71
-2.475 -0.6991036 2.825 224 220 207
-2.425 -0.7059256 2.825 79 81 74
-2.375 -0.7160068 2.825 54 56 50
-2.488694 -0.725 2.775 59 61 54
-2.475 -0.705728 2.775 59 61 54
-2.425 -0.7094314 2.775 72 70 60
-2.375 -0.7199917 2.775 56 58 50
-2.475 -0.725 2.750721 59 61 54
-2.43909 -0.725 2.725 68 67 57
-2.425 -0.716451 2.725 68 67 57
-2.406194 -0.725 2.725 68 67 57
-2.375 -0.725 2.760112 56 58 50
-2.445184 -0.725 2.675 84 81 70
-2.425 -0.7015221 2.675 84 81 70
-2.395813 -0.725 2.675 71 70 61
-2.4507 -0.725 2.625 171 168 157
-2.425 -0.6940135 2.625 209 206 192
-2.375 -0.7144544 2.625 77 75 63
-2.375 -0.725 2.641664 77 75 63
-2.430799 -0.725 2.575 110 108 97
-2.425 -0.7177334 2.575 110 108 97
-2.375 -0.7029564 2.575 85 82 69
-2.525 -0.6120961 2.525 230 225 209
-2.575 -0.6203092 2.525 227 219 201
-2.525 -0.6112299 2.575 226 221 207
-2.425 -0.725 2.569201 110 108 97
-2.398546 -0.725 2.525 86 83 71
-2.375 -0.6976177 2.525 203 203 194
-2.405663 -0.725 2.475 172 168 157
-2.375 -0.6910528 2.475 188 189 183
-2.575 -0.615566 2.575 226 222 209
-2.525 -0.6225647 2.625 230 225 211
-2.575 -0.6214849 2.625 230 226 213
-2.375 -0.725 2.444646 170 167 157
-2.575 -0.6214881 2.675 232 228 214
-2.575 -0.6158901 2.725 233 229 216
-2.575 -0.6127112 2.775 231 227 212
-2.625 -0.6198722 2.775 225 220 208
-2.775 -0.6395112 3.175 101 114 126
-2.731638 -0.625 3.175 198 193 181
-2.732585 -0.625 3.125 195 189 173
-2.775 -0.644011 3.125 85 97 108
-2.625 -0.625 3.173196 196 192 179
-2.626682 -0.625 3.175 196 192 179
-2.625 -0.6253546 3.175 196 192 179
-2.575 -0.6255118 3.125 193 189 177
-2.577121 -0.625 3.125 193 189 177
-2.575 -0.6272824 3.175 195 190 178
-2.525 -0.6289666 3.125 191 188 176
-2.525 -0.6266857 3.175 197 192 180
-2.475 -0.6278743 3.175 193 190 179
-2.475 -0.625 3.151519 193 190 179
-2.502286 -0.625 3.125 191 188 176
-2.462187 -0.625 3.175 193 190 179
-2.381023 -0.625 3.175 193 190 177
-2.375 -0.6266221 3.175 193 190 177
-2.375 -0.6263466 3.125 192 189 177
-2.38126 -0.625 3.125 192 189 177
-2.699646 -0.625 3.075 190 186 175
-2.725 -0.6280439 3.075 175 168 150
-2.725 -0.625 3.091994 175 168 150
-2.575 -0.6255856 3.075 191 188 175
-2.577278 -0.625 3.075 191 188 175
-2.525 -0.6257444 3.075 191 186 175
-2.499242 -0.625 3.075 190 187 175
-2.375 -0.625 3.119803 192 189 177
-2.675 -0.625 3.034716 198 194 181
-2.675 -0.6256939 3.025 198 194 181
-2.725 -0.6328651 3.025 62 70 75
-2.670809 -0.625 3.025 198 194 181
-2.575 -0.6266878 3.025 187 183 172
-2.583571 -0.625 3.025 187 183 172
-2.525 -0.6271859 3.025 190 185 174
-2.475 -0.625 3.071061 190 187 175
-2.475 -0.6307577 3.025 190 186 174
-2.441561 -0.625 3.025 191 187 176
-2.388324 -0.625 3.025 189 185 174
-2.375 -0.625 3.030228 189 185 174
-2.375 -0.6261461 3.025 189 185 174
-2.675 -0.6253359 2.975 220 214 199
-2.725 -0.6412382 2.975 55 59 56
-2.67044 -0.625 2.975 220 214 199
-2.575 -0.6295149 2.975 197 192 179
-2.60355 -0.625 2.975 222 219 204
-2.525 -0.6344705 2.975 189 185 173
-2.475 -0.6281248 2.975 190 187 175
-2.425 -0.625 3.000628 191 187 176
-2.425 -0.6276352 2.975 189 187 175
-2.375 -0.6261802 2.975 187 185 174
-2.675 -0.625 2.95413 220 214 199
-2.575 -0.625 2.932985 226 221 205
-2.525 -0.6356741 2.925 231 226 209
-2.568671 -0.625 2.925 226 221 205
-2.475 -0.6290414 2.925 197 194 182
-2.425 -0.625 2.950434 189 187 175
-2.446087 -0.625 2.925 185 183 173
-2.375 -0.6256099 2.925 187 184 173
-2.384858 -0.625 2.925 187 184 173
-2.625 -0.625 2.885863 220 215 198
-2.625 -0.6257168 2.875 220 215 198
-2.675 -0.632498 2.875 179 170 147
-2.675 -0.625 2.922695 213 205 182
-2.618793 -0.625 2.875 220 215 198
-2.525 -0.6329104 2.875 234 228 213
-2.55125 -0.625 2.875 228 222 206
-2.475 -0.6321954 2.875 234 229 213
-2.433916 -0.625 2.875 218 214 202
-2.375 -0.6282972 2.875 190 188 178
-2.412611 -0.625 2.875 218 214 202
-2.625 -0.6261616 2.825 224 221 207
-2.675 -0.6328453 2.825 87 89 87
-2.619894 -0.625 2.825 224 221 207
-2.525 -0.6280976 2.825 235 230 216
-2.537181 -0.625 2.825 235 230 216
-2.475 -0.6303895 2.825 234 229 213
-2.425 -0.625 2.846532 231 226 211
-2.425 -0.6260388 2.825 231 226 211
-2.375 -0.626819 2.825 228 222 207
-2.625 -0.625 2.808864 224 221 207
-2.628666 -0.625 2.775 225 220 208
-2.675 -0.6415883 2.775 62 72 79
-2.525 -0.6294749 2.775 236 230 216
-2.5479 -0.625 2.775 236 230 216
-2.475 -0.6322866 2.775 233 229 213
-2.425 -0.6299229 2.775 231 225 209
-2.375 -0.6316471 2.775 226 222 207
-2.625 -0.625 2.730835 227 220 199
-2.625 -0.6252798 2.725 227 220 199
-2.675 -0.6516568 2.725 185 184 179
-2.622091 -0.625 2.725 227 220 199
-2.525 -0.6285417 2.725 233 228 215
-2.544671 -0.625 2.725 233 228 215
-2.475 -0.6338912 2.725 230 227 211
-2.425 -0.6346964 2.725 225 221 206
-2.375 -0.6324515 2.725 227 224 209
-2.586619 -0.625 2.675 232 228 214
-2.625 -0.6286757 2.675 209 198 169
-2.525 -0.6267778 2.675 232 228 213
-2.555013 -0.625 2.675 232 228 214
-2.475 -0.6332148 2.675 229 224 210
-2.425 -0.6352986 2.675 225 220 205
-2.375 -0.6329963 2.675 228 224 210
-2.580888 -0.625 2.625 230 226 213
-2.625 -0.6328423 2.625 121 115 100
-2.525 -0.625 2.638599 230 225 211
-2.475 -0.6337581 2.625 226 222 208
-2.520073 -0.625 2.625 230 225 211
-2.425 -0.6392627 2.625 230 226 211
-2.375 -0.6378818 2.625 234 231 218
-2.581499 -0.625 2.575 226 222 209
-2.625 -0.640278 2.575 44 57 66
-2.475 -0.6338965 2.575 222 218 203
-2.502803 -0.625 2.575 226 221 207
-2.425 -0.6401525 2.575 227 224 210
-2.375 -0.6379017 2.575 243 242 229
-2.5762 -0.625 2.525 227 219 201
-2.625 -0.6504605 2.525 187 187 182
-2.475 -0.6278782 2.525 227 223 208
-2.492127 -0.625 2.525 227 223 208
-2.425 -0.6388646 2.525 226 222 208
-2.375 -0.6419612 2.525 244 242 229
-2.543135 -0.625 2.475 234 228 214
-2.575 -0.6298829 2.475 213 200 171
-2.575 -0.625 2.514904 227 219 201
-2.475 -0.6261097 2.475 232 228 213
-2.48743 -0.625 2.475 232 228 213
-2.425 -0.636309 2.475 243 242 228
-2.375 -0.6417409 2.475 244 242 229
-2.533859 -0.625 2.425 236 231 216
-2.575 -0.6351362 2.425 129 123 107
-2.475 -0.625 2.470131 232 228 213
-2.425 -0.6316618 2.425 244 242 229
-2.44418 -0.625 2.425 244 242 229
-2.375 -0.638575 2.425 243 243 230
-2.528816 -0.625 2.375 242 237 222
-2.575 -0.6402816 2.375 41 53 65
-2.425 -0.6286293 2.375 244 242 228
-2.438582 -0.625 2.375 244 242 228
-2.375 -0.6380095 2.375 242 242 229
-2.725 -0.6190306 3.125 195 189 173
-2.725 -0.6213101 3.175 198 193 181
-2.675 -0.6168276 3.125 193 189 176
-2.675 -0.6149524 3.175 202 198 184
-2.625 -0.6147702 3.125 190 186 174
-2.475 -0.6209645 3.125 193 189 176
-2.425 -0.6153578 3.175 193 190 177
-2.425 -0.616712 3.125 193 189 177
-2.675 -0.6211139 3.075 190 186 175
-2.625 -0.6146192 3.075 189 185 173
-2.475 -0.6243584 3.075 190 187 175
-2.425 -0.6169514 3.075 191 188 176
-2.375 -0.6152509 3.075 191 187 175
-2.625 -0.616287 3.025 187 182 170
-2.425 -0.6214914 3.025 191 187 176
-2.625 -0.6197067 2.975 222 219 204
-2.675 -0.6242956 2.925 213 205 182
-2.625 -0.620989 2.925 222 218 203
-2.575 -0.6234614 2.925 226 221 205
-2.425 -0.6200925 2.925 185 183 173
-2.575 -0.617897 2.875 228 222 206
-2.425 -0.622251 2.875 218 214 202
-2.575 -0.6107265 2.825 229 226 211
-3.706096 0.825 3.175 189 193 188
-3.718237 0.825 3.225 189 192 188
-3.725 0.825 3.255122 186 190 186
-3.729666 0.825 3.275 186 190 186
-3.875 0.075 3.445566 127 132 128
-3.903587 0.075 3.425 181 183 180
-3.875 0.025 3.44836 124 128 126
-3.902299 0.025 3.425 178 178 173
-3.825 0.075 3.44909 141 144 139
-3.825 0.025 3.450235 194 196 192
-3.775 0.075 3.431061 161 160 149
-3.775 0.025 3.433473 154 155 145
-3.759423 0.025 3.425 154 155 145
-3.763201 0.075 3.425 161 160 149
-3.925 0.075 3.393351 135 138 131
-3.956084 0.075 3.375 155 158 154
-3.925 0.025 3.383167 173 175 169
-3.944742 0.025 3.375 173 175 169
-3.735943 0.025 3.375 150 149 132
-3.735449 0.075 3.375 151 151 132
-3.975 0.025 3.362869 168 170 165
-3.975 0.075 3.362334 155 158 154
-3.733549 0.025 3.325 195 195 179
-3.732183 0.075 3.325 203 202 186
-3.726296 0.025 3.275 196 196 181
-3.727222 0.075 3.275 185 186 171
-3.725 0.075 3.262374 185 186 171
-3.725 0.025 3.269436 196 196 181
-3.712813 0.025 3.225 192 192 178
-3.715495 0.075 3.225 191 192 178
-3.699179 0.025 3.175 207 208 189
-3.700393 0.075 3.175 219 220 205
-3.738491 0.825 3.325 185 189 184
-3.975 0.825 3.361344 109 114 112
-3.875 0.125 3.454597 151 154 149
-3.902527 0.125 3.425 168 171 167
-3.825 0.125 3.441883 131 134 130
-3.775 0.125 3.430452 157 158 151
-3.760114 0.125 3.425 157 158 151
-3.925 0.125 3.387254 155 157 151
-3.944895 0.125 3.375 155 157 151
-3.736174 0.125 3.375 114 115 102
-3.975 0.125 3.362489 155 158 153
-3.732723 0.125 3.325 194 195 183
-3.725 0.1235 3.275 181 182 169
-3.725 0.125 3.275499 181 182 169
-3.72491 0.125 3.275 181 182 169
-3.714135 0.125 3.225 185 186 175
-3.697668 0.125 3.175 216 218 200
-3.925 0.825 3.37412 114 118 116
-3.743118 0.825 3.375 98 103 100
-3.875 0.175 3.450708 156 159 156
-3.903832 0.175 3.425 157 161 157
-3.825 0.175 3.444228 120 125 121
-3.775 0.175 3.43368 157 158 149
-3.753671 0.175 3.425 157 158 149
-3.925 0.175 3.381759 156 157 152
-3.941547 0.175 3.375 156 157 152
-3.735742 0.175 3.375 121 123 111
-3.975 0.175 3.363648 150 152 147
-3.734498 0.175 3.325 200 203 191
-3.725 0.1262295 3.275 181 182 169
-3.727794 0.175 3.275 183 185 172
-3.725 0.175 3.262459 183 185 172
-3.714439 0.175 3.225 190 191 179
-3.69926 0.175 3.175 197 200 189
-3.775 0.825 3.402915 111 116 115
-3.924208 0.825 3.375 114 118 116
-3.875 0.225 3.444127 123 126 124
-3.906688 0.225 3.425 155 160 158
-3.825 0.225 3.442585 143 147 142
-3.775 0.225 3.432224 162 164 154
-3.753623 0.225 3.425 162 164 154
-3.925 0.225 3.383854 160 163 160
-3.952949 0.225 3.375 148 152 149
-3.733902 0.225 3.375 74 78 74
-3.975 0.225 3.369968 148 152 149
-3.734047 0.225 3.325 184 187 182
-3.72661 0.225 3.275 179 180 171
-3.725 0.225 3.265458 179 180 171
-3.716086 0.225 3.225 184 185 174
-3.700585 0.225 3.175 205 207 197
-3.894681 0.825 3.425 108 112 110
-3.797625 0.825 3.425 111 116 115
-3.875 0.275 3.441531 140 144 141
-3.903951 0.275 3.425 150 155 151
-3.825 0.275 3.440444 154 157 152
-3.775 0.275 3.429916 142 144 138
-3.758939 0.275 3.425 142 144 138
-3.925 0.275 3.392061 144 148 145
-3.962178 0.275 3.375 149 152 151
-3.734734 0.275 3.375 73 77 73
-3.975 0.275 3.369663 149 152 151
-3.732872 0.275 3.325 188 190 185
-3.726476 0.275 3.275 178 180 171
-3.725 0.275 3.268845 178 180 171
-3.712068 0.275 3.225 189 191 182
-3.699689 0.275 3.175 193 198 195
-3.875 0.825 3.439604 108 112 110
-3.825 0.825 3.435074 121 124 121
-3.875 0.325 3.442 133 138 135
-3.909906 0.325 3.425 150 153 152
-3.825 0.325 3.44209 140 143 137
-3.775 0.325 3.427304 154 156 147
-3.765504 0.325 3.425 154 156 147
-3.925 0.325 3.396749 153 155 153
-3.960207 0.325 3.375 149 154 150
-3.732521 0.325 3.375 81 84 81
-3.975 0.325 3.368883 149 154 150
-3.733023 0.325 3.325 193 197 194
-3.727092 0.325 3.275 180 183 174
-3.725 0.325 3.265961 180 183 174
-3.713793 0.325 3.225 185 187 176
-3.699936 0.325 3.175 195 198 196
-3.704334 0.775 3.175 192 196 191
-3.716021 0.775 3.225 190 194 190
-3.875 0.375 3.441598 131 135 132
-3.908839 0.375 3.425 140 145 143
-3.825 0.375 3.438729 137 140 135
-3.789727 0.375 3.425 116 121 120
-3.775 0.3367021 3.425 154 156 147
-3.925 0.375 3.394753 152 155 153
-3.959375 0.375 3.375 148 152 149
-3.775 0.375 3.412544 116 121 120
-3.736233 0.375 3.375 83 87 83
-3.975 0.375 3.368955 148 152 149
-3.73333 0.375 3.325 195 199 196
-3.725 0.3698905 3.275 182 183 175
-3.725 0.375 3.276404 182 183 175
-3.724732 0.375 3.275 182 183 175
-3.710364 0.375 3.225 185 187 176
-3.700446 0.375 3.175 206 208 196
-3.875 0.425 3.441609 134 138 134
-3.899179 0.425 3.425 134 138 134
-3.825 0.425 3.437176 149 151 145
-3.784169 0.425 3.425 130 133 129
-3.925 0.425 3.386029 152 155 152
-3.958666 0.425 3.375 140 143 141
-3.775 0.425 3.416882 130 133 129
-3.735644 0.425 3.375 85 89 87
-3.975 0.425 3.368715 140 143 141
-3.733769 0.425 3.325 196 199 196
-3.725 0.380287 3.275 182 183 175
-3.726991 0.425 3.275 181 183 174
-3.725 0.425 3.266655 181 183 174
-3.713368 0.425 3.225 191 195 189
-3.699767 0.425 3.175 192 195 188
-3.875 0.475 3.440654 142 146 144
-3.901655 0.475 3.425 148 151 148
-3.825 0.475 3.436044 121 124 121
-3.792908 0.475 3.425 115 119 119
-3.925 0.475 3.381082 124 128 126
-3.946213 0.475 3.375 124 128 126
-3.775 0.475 3.409855 115 119 119
-3.736658 0.475 3.375 96 101 97
-3.975 0.475 3.368495 139 142 140
-3.733792 0.475 3.325 196 201 197
-3.725 0.4485294 3.275 181 183 174
-3.725 0.475 3.285759 197 202 199
-3.722657 0.475 3.275 197 202 199
-3.712939 0.475 3.225 180 182 174
-3.699087 0.475 3.175 199 204 201
-3.725 0.775 3.262549 189 192 189
-3.728046 0.775 3.275 189 192 189
-3.737742 0.775 3.325 188 192 188
-3.975 0.775 3.363688 111 116 115
-3.875 0.525 3.439217 139 143 140
-3.900167 0.525 3.425 148 151 149
-3.825 0.525 3.435702 124 128 125
-3.787349 0.525 3.425 127 132 130
-3.925 0.525 3.381368 122 126 125
-3.947573 0.525 3.375 122 126 125
-3.775 0.525 3.414473 127 132 130
-3.738464 0.525 3.375 96 101 97
-3.975 0.525 3.368838 138 143 139
-3.736003 0.525 3.325 195 200 197
-3.725 0.525 3.27725 190 194 188
-3.724495 0.525 3.275 190 194 188
-3.714089 0.525 3.225 191 195 189
-3.701268 0.525 3.175 186 189 182
-3.875 0.575 3.440597 131 135 132
-3.902212 0.575 3.425 146 150 148
-3.825 0.575 3.436217 119 122 118
-3.792219 0.575 3.425 112 117 116
-3.925 0.575 3.380327 120 125 124
-3.941132 0.575 3.375 120 125 124
-3.775 0.575 3.408496 112 117 116
-3.737395 0.575 3.375 100 104 101
-3.975 0.575 3.366665 135 140 138
-3.737138 0.575 3.325 196 201 198
-3.725 0.5370275 3.275 190 194 188
-3.726568 0.575 3.275 197 201 199
-3.725 0.575 3.268721 197 201 199
-3.713954 0.575 3.225 189 193 187
-3.701631 0.575 3.175 190 194 188
-3.875 0.625 3.441169 114 118 116
-3.90247 0.625 3.425 130 134 132
-3.825 0.625 3.433371 156 158 154
-3.797222 0.625 3.425 112 117 117
-3.925 0.625 3.379281 120 125 123
-3.940039 0.625 3.375 120 125 123
-3.775 0.625 3.407115 112 117 117
-3.741632 0.625 3.375 96 100 97
-3.975 0.625 3.367421 135 139 137
-3.737683 0.625 3.325 196 198 195
-3.726286 0.625 3.275 196 200 197
-3.725 0.625 3.270488 196 200 197
-3.712641 0.625 3.225 188 193 187
-3.701551 0.625 3.175 189 193 186
-3.900532 0.675 3.425 129 134 132
-3.875 0.675 3.439806 117 122 120
-3.925 0.775 3.374576 115 120 119
-3.743061 0.775 3.375 103 108 105
-3.775 0.775 3.404894 105 109 109
-3.825 0.675 3.436911 123 125 123
-3.79179 0.675 3.425 110 114 114
-3.925 0.675 3.379383 117 122 120
-3.939332 0.675 3.375 117 122 120
-3.775 0.675 3.406567 110 114 114
-3.73826 0.675 3.375 105 109 106
-3.975 0.675 3.36654 116 121 120
-3.737458 0.675 3.325 194 197 194
-3.725216 0.675 3.275 187 189 185
-3.725 0.675 3.27423 187 189 185
-3.713168 0.675 3.225 181 184 176
-3.700981 0.675 3.175 188 192 186
-3.825 0.725 3.433884 123 125 124
-3.875 0.725 3.440248 114 118 116
-3.797396 0.725 3.425 109 112 112
-3.925 0.725 3.376428 116 121 119
-3.931231 0.725 3.375 116 121 119
-3.896612 0.725 3.425 114 118 116
-3.775 0.725 3.406031 109 112 112
-3.742283 0.725 3.375 108 112 109
-3.975 0.725 3.364647 114 118 118
-3.738445 0.725 3.325 192 195 192
-3.726087 0.725 3.275 192 194 191
-3.725 0.725 3.269525 192 194 191
-3.716484 0.725 3.225 193 196 193
-3.703678 0.725 3.175 177 180 172
-3.825 0.775 3.432315 132 135 132
-3.875 0.775 3.439224 113 117 114
-3.800803 0.775 3.425 132 135 132
-3.925 0.7639143 3.375 115 120 119
-3.924634 0.775 3.375 115 120 119
-3.894937 0.775 3.425 113 117 114
-3.894937 0.775 3.425 113 117 114
-3.775 0.775 3.404894 105 109 109
-3.743061 0.775 3.375 103 108 105
-3.646937 -1.325 3.175 96 123 147
-3.625 -1.336347 3.175 96 123 147
-3.625 -1.334198 3.125 98 124 149
-3.635143 -1.325 3.125 98 124 149
-3.575 -1.335332 3.125 110 131 149
-3.575 -1.338336 3.175 103 126 147
-3.525 -1.337484 3.125 100 127 152
-3.525 -1.336982 3.175 93 120 145
-3.475 -1.339264 3.125 93 119 146
-3.475 -1.338366 3.175 93 120 146
-3.425 -1.333457 3.125 82 107 134
-3.425 -1.332958 3.175 85 111 136
-3.375 -1.333591 3.125 82 108 131
-3.375 -1.332793 3.175 78 102 128
-3.325 -1.329435 3.125 74 99 124
-3.325 -1.330637 3.175 75 98 123
-3.275 -1.33054 3.125 76 101 126
-3.275 -1.32752 3.175 70 93 118
-3.225 -1.327842 3.125 79 104 127
-3.225 -1.325975 3.175 74 98 121
-3.197062 -1.325 3.175 74 99 123
-3.175 -1.325 3.165226 74 99 123
-3.175 -1.327936 3.125 79 103 128
-3.625 -1.329241 3.075 93 120 146
-3.629422 -1.325 3.075 93 120 146
-3.575 -1.336385 3.075 89 112 135
-3.525 -1.336419 3.075 97 123 148
-3.475 -1.338407 3.075 89 115 143
-3.425 -1.335269 3.075 89 115 141
-3.375 -1.335745 3.075 80 104 128
-3.325 -1.331002 3.075 78 102 126
-3.275 -1.329569 3.075 77 102 125
-3.225 -1.327632 3.075 74 98 123
-3.175 -1.326366 3.075 79 102 128
-3.625 -1.32674 3.025 93 119 144
-3.626583 -1.325 3.025 93 119 144
-3.575 -1.33282 3.025 94 122 147
-3.525 -1.336443 3.025 102 125 144
-3.475 -1.333314 3.025 91 116 141
-3.425 -1.336363 3.025 92 118 143
-3.375 -1.335058 3.025 79 103 127
-3.325 -1.332268 3.025 76 100 125
-3.275 -1.329956 3.025 79 102 127
-3.225 -1.328689 3.025 74 98 124
-3.175 -1.326299 3.025 72 96 121
-3.625 -1.325 3.017404 93 119 144
-3.575 -1.331948 2.975 93 119 144
-3.596042 -1.325 2.975 93 119 144
-3.525 -1.337173 2.975 85 108 133
-3.475 -1.338395 2.975 98 123 145
-3.425 -1.336276 2.975 92 117 142
-3.375 -1.334122 2.975 89 112 137
-3.325 -1.331272 2.975 83 105 128
-3.275 -1.329328 2.975 78 100 126
-3.225 -1.328918 2.975 78 102 126
-3.175 -1.327997 2.975 78 101 127
-3.575 -1.33118 2.925 91 117 144
-3.583429 -1.325 2.925 91 117 144
-3.525 -1.333619 2.925 95 121 145
-3.475 -1.335677 2.925 88 112 138
-3.425 -1.334879 2.925 99 117 134
-3.375 -1.33578 2.925 103 121 135
-3.325 -1.334124 2.925 99 116 132
-3.275 -1.329612 2.925 95 113 126
-3.225 -1.327092 2.925 78 101 124
-3.175 -1.329504 2.925 81 105 131
-3.575 -1.327689 2.875 95 121 146
-3.577958 -1.325 2.875 95 121 146
-3.525 -1.333 2.875 92 117 141
-3.475 -1.333305 2.875 93 119 143
-3.425 -1.337356 2.875 92 118 144
-3.375 -1.336067 2.875 85 111 138
-3.325 -1.334713 2.875 81 106 131
-3.275 -1.331149 2.875 82 105 130
-3.225 -1.328243 2.875 96 115 134
-3.175 -1.33039 2.875 86 110 136
-3.575 -1.325 2.839105 91 115 141
-3.525 -1.332241 2.825 94 117 140
-3.568881 -1.325 2.825 91 115 141
-3.475 -1.333523 2.825 92 114 138
-3.425 -1.336784 2.825 107 127 146
-3.375 -1.338397 2.825 95 120 143
-3.325 -1.332743 2.825 88 111 135
-3.275 -1.332596 2.825 91 112 132
-3.225 -1.329838 2.825 95 114 134
-3.175 -1.331705 2.825 86 111 136
-3.525 -1.328974 2.775 96 121 146
-3.541301 -1.325 2.775 96 121 146
-3.475 -1.335853 2.775 113 134 148
-3.425 -1.337184 2.775 84 108 134
-3.375 -1.335717 2.775 103 125 145
-3.325 -1.333189 2.775 101 123 145
-3.275 -1.332102 2.775 87 107 126
-3.225 -1.331505 2.775 86 111 136
-3.175 -1.330099 2.775 85 110 136
-3.525 -1.32876 2.725 94 121 148
-3.532535 -1.325 2.725 94 121 148
-3.475 -1.334909 2.725 93 120 145
-3.425 -1.33824 2.725 91 118 144
-3.375 -1.336918 2.725 96 124 150
-3.325 -1.334986 2.725 90 116 143
-3.275 -1.33412 2.725 87 113 139
-3.225 -1.330847 2.725 86 111 138
-3.175 -1.330115 2.725 89 115 140
-3.525 -1.325 2.683548 96 124 149
-3.475 -1.33374 2.675 99 126 152
-3.521497 -1.325 2.675 96 124 149
-3.425 -1.335031 2.675 92 120 147
-3.375 -1.336986 2.675 94 121 148
-3.325 -1.335572 2.675 92 119 145
-3.275 -1.332062 2.675 86 111 137
-3.225 -1.331376 2.675 88 113 139
-3.175 -1.329911 2.675 85 111 136
-3.475 -1.332104 2.625 94 122 148
-3.504282 -1.325 2.625 94 121 147
-3.425 -1.335451 2.625 93 121 148
-3.375 -1.337903 2.625 91 119 146
-3.325 -1.335576 2.625 94 122 149
-3.275 -1.332257 2.625 84 109 136
-3.225 -1.332073 2.625 80 106 132
-3.175 -1.331431 2.625 85 111 137
-3.475 -1.328485 2.575 92 121 148
-3.487161 -1.325 2.575 92 121 148
-3.425 -1.334925 2.575 96 124 150
-3.375 -1.336881 2.575 95 123 150
-3.325 -1.335693 2.575 95 125 150
-3.275 -1.332638 2.575 88 114 141
-3.225 -1.333471 2.575 83 110 136
-3.175 -1.329619 2.575 85 111 139
-3.475 -1.326973 2.525 94 121 147
-3.479136 -1.325 2.525 94 121 147
-3.425 -1.333455 2.525 94 121 148
-3.375 -1.337186 2.525 95 123 149
-3.325 -1.33625 2.525 97 125 152
-3.275 -1.333588 2.525 87 114 142
-3.225 -1.334116 2.525 84 111 137
-3.175 -1.331125 2.525 84 110 136
-3.475 -1.325 2.485399 94 121 147
-3.425 -1.332888 2.475 94 122 148
-3.472248 -1.325 2.475 94 121 147
-3.375 -1.334624 2.475 92 119 146
-3.325 -1.334618 2.475 94 122 148
-3.275 -1.334837 2.475 88 116 143
-3.225 -1.333078 2.475 83 110 137
-3.175 -1.332341 2.475 83 110 136
-3.425 -1.331397 2.425 90 119 144
-3.451674 -1.325 2.425 91 120 146
-3.375 -1.333068 2.425 93 120 147
-3.325 -1.333443 2.425 95 122 149
-3.275 -1.334149 2.425 86 113 141
-3.225 -1.334538 2.425 81 107 134
-3.175 -1.333848 2.425 82 107 133
-3.425 -1.327219 2.375 94 124 149
-3.43088 -1.325 2.375 94 124 149
-3.375 -1.332138 2.375 93 119 146
-3.325 -1.333346 2.375 91 118 146
-3.275 -1.332948 2.375 90 119 146
-3.225 -1.333591 2.375 84 110 137
-3.175 -1.333194 2.375 79 105 132
-3.68854 -1.275 3.175 94 120 144
-3.675 -1.307761 3.175 91 117 143
-3.675 -1.284519 3.125 101 125 149
-3.679311 -1.275 3.125 101 125 149
-3.175 -1.324374 3.175 74 99 123
-3.675 -1.275 3.108365 101 125 149
-3.665129 -1.275 3.075 101 125 149
-3.660748 -1.275 3.025 99 123 146
-3.625 -1.312961 2.975 96 123 147
-3.644432 -1.275 2.975 95 122 146
-3.625 -1.288424 2.925 97 122 145
-3.63125 -1.275 2.925 97 122 145
-3.625 -1.275 2.896297 98 123 146
-3.619331 -1.275 2.875 98 123 146
-3.575 -1.324068 2.825 91 115 141
-3.611702 -1.275 2.825 99 124 145
-3.575 -1.315102 2.775 100 121 139
-3.597581 -1.275 2.775 89 116 140
-3.575 -1.295329 2.725 95 120 144
-3.583003 -1.275 2.725 95 120 144
-3.575 -1.275 2.691168 100 123 143
-3.569838 -1.275 2.675 100 123 143
-3.525 -1.324365 2.675 96 124 149
-3.525 -1.320026 2.625 94 121 147
-3.557189 -1.275 2.625 113 134 149
-3.525 -1.308854 2.575 91 118 145
-3.542479 -1.275 2.575 95 121 145
-3.525 -1.287991 2.525 98 121 144
-3.530037 -1.275 2.525 98 121 144
-3.525 -1.275 2.497426 97 121 143
-3.519859 -1.275 2.475 97 121 143
-3.475 -1.324529 2.475 94 121 147
-3.475 -1.318976 2.425 91 120 146
-3.510223 -1.275 2.425 110 131 147
-3.475 -1.306755 2.375 93 122 147
-3.494113 -1.275 2.375 91 118 144
-3.698793 -1.225 3.175 99 121 145
-3.687207 -1.225 3.125 128 141 148
-3.675 -1.238082 3.075 103 124 145
-3.677899 -1.225 3.075 103 124 145
-3.675 -1.225 3.061783 103 124 145
-3.666906 -1.225 3.025 107 126 141
-3.654475 -1.225 2.975 107 125 138
-3.642045 -1.225 2.925 107 128 148
-3.625 -1.254348 2.875 98 123 146
-3.630864 -1.225 2.875 107 127 143
-3.625 -1.225 2.848767 97 119 141
-3.619605 -1.225 2.825 97 119 141
-3.606588 -1.225 2.775 101 118 134
-3.596678 -1.225 2.725 104 131 155
-3.575 -1.256294 2.675 100 123 143
-3.580966 -1.225 2.675 103 127 147
-3.575 -1.225 2.655146 103 127 147
-3.565385 -1.225 2.625 106 125 141
-3.554775 -1.225 2.575 113 130 142
-3.544545 -1.225 2.525 128 144 154
-3.525 -1.260287 2.475 97 121 143
-3.533193 -1.225 2.475 115 132 144
-3.525 -1.225 2.451155 115 132 144
-3.514992 -1.225 2.425 126 141 151
-3.502967 -1.225 2.375 119 135 146
-3.697518 -1.175 3.175 154 157 151
-3.688366 -1.175 3.125 125 137 145
-3.676657 -1.175 3.075 104 124 143
-3.675 -1.175 3.064227 104 124 143
-3.669548 -1.175 3.025 108 121 131
-3.65668 -1.175 2.975 107 113 115
-3.64032 -1.175 2.925 150 153 151
-3.629743 -1.175 2.875 127 137 143
-3.625 -1.175 2.848669 108 125 138
-3.621149 -1.175 2.825 108 125 138
-3.610762 -1.175 2.775 112 120 126
-3.597932 -1.175 2.725 136 147 152
-3.585196 -1.175 2.675 99 119 140
-3.575 -1.175 2.642298 102 119 134
-3.569412 -1.175 2.625 102 119 134
-3.557445 -1.175 2.575 117 126 131
-3.54679 -1.175 2.525 149 156 154
-3.534891 -1.175 2.475 109 128 143
-3.525 -1.175 2.44208 120 138 152
-3.519912 -1.175 2.425 120 138 152
-3.507057 -1.175 2.375 115 131 139
-3.695154 -1.125 3.175 152 157 154
-3.681645 -1.125 3.125 152 156 152
-3.675 -1.160481 3.075 104 124 143
-3.675 -1.125 3.096545 132 144 150
-3.67098 -1.125 3.075 132 144 150
-3.667987 -1.125 3.025 105 112 117
-3.654049 -1.125 2.975 154 160 158
-3.638611 -1.125 2.925 148 154 152
-3.629773 -1.125 2.875 129 136 138
-3.625 -1.125 2.854912 129 136 138
-3.617958 -1.125 2.825 120 124 125
-3.608794 -1.125 2.775 142 147 145
-3.594341 -1.125 2.725 150 158 156
-3.583141 -1.125 2.675 112 123 133
-3.575 -1.125 2.645114 119 126 127
-3.569396 -1.125 2.625 119 126 127
-3.55795 -1.125 2.575 147 153 151
-3.54514 -1.125 2.525 150 158 157
-3.529269 -1.125 2.475 139 148 152
-3.525 -1.125 2.457218 139 148 152
-3.516333 -1.125 2.425 121 130 134
-3.508624 -1.125 2.375 119 124 125
-3.693241 -1.075 3.175 148 151 148
-3.678394 -1.075 3.125 132 141 145
-3.675 -1.075 3.110006 132 141 145
-3.667938 -1.075 3.075 150 157 156
-3.661755 -1.075 3.025 168 173 169
-3.649223 -1.075 2.975 147 151 149
-3.633833 -1.075 2.925 147 152 150
-3.625915 -1.075 2.875 147 154 154
-3.625 -1.075 2.871495 147 154 154
-3.614257 -1.075 2.825 165 170 166
-3.606805 -1.075 2.775 176 181 177
-3.592849 -1.075 2.725 150 158 157
-3.576793 -1.075 2.675 149 157 157
-3.575 -1.075 2.667552 149 157 157
-3.565161 -1.075 2.625 152 159 156
-3.554665 -1.075 2.575 173 178 175
-3.545671 -1.075 2.525 150 157 157
-3.528527 -1.075 2.475 150 156 155
-3.525 -1.075 2.461968 150 156 155
-3.513409 -1.075 2.425 135 141 141
-3.504939 -1.075 2.375 129 134 134
-3.675 -1.031433 3.125 148 152 149
-3.675 -1.025 3.126469 148 152 149
-3.692319 -1.025 3.175 147 151 149
-3.674517 -1.025 3.125 148 152 149
-3.668248 -1.025 3.075 135 144 149
-3.660773 -1.025 3.025 180 183 176
-3.648046 -1.025 2.975 149 154 151
-3.635057 -1.025 2.925 148 153 152
-3.625604 -1.025 2.875 174 176 172
-3.625 -1.025 2.872985 174 176 172
-3.611888 -1.025 2.825 179 182 177
-3.605998 -1.025 2.775 186 188 181
-3.590789 -1.025 2.725 151 159 158
-3.576539 -1.025 2.675 170 172 166
-3.575 -1.025 2.668519 170 172 166
-3.565265 -1.025 2.625 176 179 173
-3.556128 -1.025 2.575 187 187 181
-3.543801 -1.025 2.525 151 158 157
-3.527724 -1.025 2.475 178 179 172
-3.525 -1.025 2.466434 178 179 172
-3.511417 -1.025 2.425 177 177 170
-3.504602 -1.025 2.375 182 183 177
-3.675 -1.020961 3.125 148 152 149
-3.681131 -0.9750001 3.125 194 190 177
-3.693848 -0.9750001 3.175 194 189 177
-3.675 -0.9750001 3.089731 196 194 182
-3.672525 -0.9750001 3.075 196 194 182
-3.662864 -0.9750001 3.025 189 189 181
-3.65175 -0.9750001 2.975 190 193 186
-3.637582 -0.9750001 2.925 200 194 180
-3.625 -0.9883575 2.875 201 195 182
-3.625 -0.9750001 2.875913 201 195 182
-3.624762 -0.9750001 2.875 201 195 182
-3.616707 -0.9750001 2.825 193 194 184
-3.606194 -0.9750001 2.775 191 193 184
-3.593657 -0.9750001 2.725 204 198 184
-3.578028 -0.9750001 2.675 197 194 182
-3.575 -0.9750001 2.662323 197 194 182
-3.566972 -0.9750001 2.625 193 193 185
-3.556778 -0.9750001 2.575 191 193 186
-3.54388 -0.9750001 2.525 205 198 185
-3.529064 -0.9750001 2.475 204 197 184
-3.525 -0.9750001 2.461693 204 197 184
-3.514047 -0.9750001 2.425 196 194 181
-3.504961 -0.9750001 2.375 191 191 183
-3.695127 -0.925 3.175 191 187 174
-3.682733 -0.925 3.125 181 180 172
-3.675 -0.925 3.094142 173 174 167
-3.67104 -0.925 3.075 173 174 167
-3.66428 -0.925 3.025 187 188 180
-3.651363 -0.925 2.975 188 191 184
-3.637135 -0.925 2.925 193 188 175
-3.625 -0.9641496 2.875 201 195 182
-3.625863 -0.925 2.875 184 183 172
-3.625 -0.925 2.870778 184 183 172
-3.616529 -0.925 2.825 185 187 179
-3.606346 -0.925 2.775 189 192 184
-3.592778 -0.925 2.725 194 189 177
-3.577966 -0.925 2.675 189 187 176
-3.575 -0.925 2.663234 189 187 176
-3.567211 -0.925 2.625 187 189 183
-3.559028 -0.925 2.575 190 193 185
-3.54476 -0.925 2.525 196 192 178
-3.528492 -0.925 2.475 192 188 175
-3.525 -0.925 2.463981 192 188 175
-3.513785 -0.925 2.425 195 190 178
-3.506118 -0.925 2.375 185 187 179
-3.69461 -0.875 3.175 181 180 168
-3.679082 -0.875 3.125 176 177 169
-3.675 -0.875 3.102106 176 177 169
-3.671018 -0.875 3.075 185 186 177
-3.663389 -0.875 3.025 189 191 183
-3.649712 -0.875 2.975 184 181 171
-3.637013 -0.875 2.925 182 181 170
-3.62509 -0.875 2.875 184 185 177
-3.625 -0.875 2.874594 184 185 177
-3.615721 -0.875 2.825 188 189 180
-3.606292 -0.875 2.775 190 193 184
-3.592183 -0.875 2.725 189 187 175
-3.575158 -0.875 2.675 189 186 175
-3.575 -0.875 2.674351 189 186 175
-3.565121 -0.875 2.625 187 187 176
-3.557846 -0.875 2.575 192 194 186
-3.542601 -0.875 2.525 190 187 175
-3.525851 -0.875 2.475 199 194 182
-3.525 -0.875 2.472026 199 194 182
-3.513736 -0.875 2.425 190 187 176
-3.505366 -0.875 2.375 192 193 183
-3.693918 -0.825 3.175 154 161 160
-3.678768 -0.825 3.125 176 176 165
